# 3D point list with one line of data per point:
#   POINT3D_ID, X, Y, Z, R, G, B, ERROR, TRACK[] as (IMAGE_ID, POINT2D_IDX)
# Number of points: 551, mean track length: 1.0
25018 0.17629267780603952 0.329194537778406 0.0865820701511042 0 0 255 1.0 1 1 25017
25019 -0.22681879815689593 0.31150960363763813 0.002178684265048636 0 0 255 1.0 1 1 25018
25020 0.23924962376036024 0.6603504114048473 0.5764487464967434 0 0 255 1.0 1 1 25019
25021 -0.5122767056799507 0.0730378024350915 0.01055260574685457 0 0 255 1.0 1 1 25020
25022 0.8194222628627357 0.14714248866240176 0.17736648488046391 0 0 255 1.0 1 1 25021
25023 -0.30170547390989233 0.31613696602786145 -0.010156836128611513 0 0 255 1.0 1 1 25022
25024 -0.37438685532381294 -0.13646774638761183 0.2262859101304049 0 0 255 1.0 1 1 25023
25025 -0.08828595205846257 0.30751675287823144 0.024161612049609982 0 0 255 1.0 1 1 25024
25026 0.3695040644047973 0.6427708492831359 0.5472396852582662 0 0 255 1.0 1 1 25025
25027 0.3907934205421818 0.35867491731417944 0.12619879677176726 0 0 255 1.0 1 1 25026
25028 1.0702538599282372 0.37300569045505183 0.44339380579181964 0 0 255 1.0 1 1 25027
25029 -0.1458476486641359 0.3074436336538513 0.013241267037970017 0 0 255 1.0 1 1 25028
25030 0.7646638108402826 0.3752954311460699 0.5536982370086647 0 0 255 1.0 1 1 25029
25031 0.9780534415556565 0.17577469626198727 0.16485207436349492 0 0 255 1.0 1 1 25030
25032 0.9740819888611834 0.4035317573858639 0.5256185317603406 0 0 255 1.0 1 1 25031
25033 0.13752616207214285 0.6689100207081999 0.5871690983636395 0 0 255 1.0 1 1 25032
25034 1.0674796344778634 0.377902665009346 0.4517245561380345 0 0 255 1.0 1 1 25033
25035 -0.31474035319914345 0.3121099939320553 -0.021975151912085877 0 0 255 1.0 1 1 25034
25036 -0.3893690184093242 -0.14109630882699875 0.21270205326952096 0 0 255 1.0 1 1 25035
25037 -0.8180930570913203 0.5746117571576765 0.6615866521311224 0 0 255 1.0 1 1 25036
25038 1.079354439758536 0.35831867276354457 0.41775988872596126 0 0 255 1.0 1 1 25037
25039 -0.5665122098582827 0.07849625326693266 -0.002867699610033858 0 0 255 1.0 1 1 25038
25040 0.29865701821065266 0.6556611960772858 0.5683193851543071 0 0 255 1.0 1 1 25039
25041 0.39992945626574106 0.36713653658779677 0.13970922761673554 0 0 255 1.0 1 1 25040
25042 0.7310332094280798 0.36255596155004977 0.5448338092126213 0 0 255 1.0 1 1 25041
25043 -0.04396702276617828 0.30981955035389097 0.035325899192248045 0 0 255 1.0 1 1 25042
25044 -0.06105590843344044 0.0830453140119709 0.15694461078322264 0 0 255 1.0 1 1 25043
25045 0.35854809993523495 0.3543025306129577 0.12215201266589526 0 0 255 1.0 1 1 25044
25046 1.0699317213620478 0.3775091644589681 0.45009261732568384 0 0 255 1.0 1 1 25045
25047 -0.5086958186391755 0.07306742948310285 0.01216506138514628 0 0 255 1.0 1 1 25046
25048 0.4049000501248594 0.3712934582250913 0.14621438878670912 0 0 255 1.0 1 1 25047
25049 0.9803208312337899 0.17434856651241137 0.1612510931444715 0 0 255 1.0 1 1 25048
25050 -0.2846930992800655 0.3186132816738487 -0.00031107929217566443 0 0 255 1.0 1 1 25049
25051 -0.31976304858937105 0.09249589416527915 0.11864572384493188 0 0 255 1.0 1 1 25050
25052 -0.35483299789867656 -0.13362149334329088 0.23760252698203987 0 0 255 1.0 1 1 25051
25053 0.12784161996215151 0.3231762344404947 0.07477503082429138 0 0 255 1.0 1 1 25052
25054 0.22906193953172727 0.6631531642066135 0.5801451100365449 0 0 255 1.0 1 1 25053
25055 -0.03209737705482321 0.3088344536140184 0.035113305964170394 0 0 255 1.0 1 1 25054
25056 0.08985553618071127 0.31811697350914425 0.06383108837057727 0 0 255 1.0 1 1 25055
25057 -0.6077530322285927 0.09046713235695147 0.001657480135835554 0 0 255 1.0 1 1 25056
25058 0.028110430765936112 0.6715333736247886 0.5852687727127515 0 0 255 1.0 1 1 25057
25059 -0.1214103616705055 0.30959488406862024 0.022130026384866497 0 0 255 1.0 1 1 25058
25060 -0.144283886981536 0.08280386625112346 0.14276307064724114 0 0 255 1.0 1 1 25059
25061 0.21826947256537885 0.3331385496177681 0.09333646092587466 0 0 255 1.0 1 1 25060
25062 0.1729716052718559 0.6649166541774609 0.5827381406026084 0 0 255 1.0 1 1 25061
25063 1.011070422888262 0.40176039734987734 0.5089890234604806 0 0 255 1.0 1 1 25062
25064 0.05867189608201176 0.3172599107923255 0.06017965874230313 0 0 255 1.0 1 1 25063
25065 0.049249636975056466 0.091041433080715 0.18365482493381569 0 0 255 1.0 1 1 25064
25066 -0.5767370788230304 0.08083799633870203 -0.002921794061064631 0 0 255 1.0 1 1 25065
25067 1.0823742456799943 0.35230797359366095 0.4074476828207876 0 0 255 1.0 1 1 25066
25068 1.0658152879336928 0.37790827911335567 0.45245040655235846 0 0 255 1.0 1 1 25067
25069 0.8491808743058378 0.15663294877375122 0.1835604714006902 0 0 255 1.0 1 1 25068
25070 0.9801617551070954 0.1734479011966652 0.1596938985089693 0 0 255 1.0 1 1 25069
25071 0.3636133910556617 0.642842002679227 0.5478297228543101 0 0 255 1.0 1 1 25070
25072 0.8464596738834531 0.15344109790733418 0.1788366979835947 0 0 255 1.0 1 1 25071
25073 1.0184146828662342 0.39963209382781306 0.5030986988375712 0 0 255 1.0 1 1 25072
25074 0.974598243916444 0.4004626834847307 0.5211567057492872 0 0 255 1.0 1 1 25073
25075 0.13992949084591186 0.6679640463271861 0.586057841973928 0 0 255 1.0 1 1 25074
25076 1.0681810305365906 0.3767408172739568 0.44973381719766947 0 0 255 1.0 1 1 25075
25077 -0.5407987726963992 0.5036904913146496 0.6795250010663201 0 0 255 1.0 1 1 25076
25078 0.3096355963738485 0.6556301587091129 0.5676744668771365 0 0 255 1.0 1 1 25077
25079 0.132953098790002 0.32288244836591806 0.07440926693329031 0 0 255 1.0 1 1 25078
25080 0.9809833955281064 0.17334914197736762 0.1591419747906493 0 0 255 1.0 1 1 25079
25081 0.9734738886814154 0.178415559261627 0.17166039693845092 0 0 255 1.0 1 1 25080
25082 1.078931831177567 0.35825357703652383 0.41785113904981386 0 0 255 1.0 1 1 25081
25083 0.7526948906922171 0.1343416671497284 0.17685338431472553 0 0 255 1.0 1 1 25082
25084 0.996445366534191 0.39906461774897695 0.510908787223437 0 0 255 1.0 1 1 25083
25085 0.9148118415286752 0.16950061975532948 0.1808551836627108 0 0 255 1.0 1 1 25084
25086 0.7541970018748829 0.13780034753251202 0.18263428664274595 0 0 255 1.0 1 1 25085
25087 0.24291061156857152 0.6623040785770056 0.5787701694052878 0 0 255 1.0 1 1 25086
25088 0.07080651552137057 0.3153352823559863 0.05753175318646364 0 0 255 1.0 1 1 25087
25089 -0.5478833533595233 0.07331999726007687 -0.004820487923481442 0 0 255 1.0 1 1 25088
25090 1.029470171558297 0.39700282094713346 0.4949593469965199 0 0 255 1.0 1 1 25089
25091 0.9780137768753143 0.17554905542986177 0.16446297571177837 0 0 255 1.0 1 1 25090
25092 0.24651441452411177 0.6608435806564672 0.5768646987811052 0 0 255 1.0 1 1 25091
25093 0.4269170793093523 0.624905382868155 0.5186850770614588 0 0 255 1.0 1 1 25092
25094 0.1717219776886379 0.32773602829455006 0.08393017199174557 0 0 255 1.0 1 1 25093
25095 1.0897212733447774 0.34454078654666453 0.3924424711600738 0 0 255 1.0 1 1 25094
25096 1.0829477471594662 0.35364055475938905 0.40918329435791967 0 0 255 1.0 1 1 25095
25097 -0.142512371722528 0.30921474817373484 0.01726894232819487 0 0 255 1.0 1 1 25096
25098 -0.16696211424781016 0.08239533605921112 0.1375388873241412 0 0 255 1.0 1 1 25097
25099 -0.7079590603710557 0.18613495956696235 0.13552441110950464 0 0 255 1.0 1 1 25098
25100 -0.7226911191312853 0.16120724894578498 0.08124986715364302 0 0 255 1.0 1 1 25099
25101 -0.48385298376655045 0.49945888378320724 0.6916662585852966 0 0 255 1.0 1 1 25100
25102 -0.5146576565925731 0.5045804436056711 0.6888158237206141 0 0 255 1.0 1 1 25101
25103 1.0453739438685037 0.3892036032742854 0.47736054607317446 0 0 255 1.0 1 1 25102
25104 1.0024908482151993 0.18138630121239885 0.16376510462806437 0 0 255 1.0 1 1 25103
25105 0.3671589968903535 0.640976859180292 0.5451731497586023 0 0 255 1.0 1 1 25104
25106 0.35368223442938607 0.6474115149492672 0.5543909609294133 0 0 255 1.0 1 1 25105
25107 -0.41753063559070197 -0.14615544243654943 0.19364912037849558 0 0 255 1.0 1 1 25106
25108 0.8441429456993101 0.15495281699228292 0.18242000057660657 0 0 255 1.0 1 1 25107
25109 0.03987712973538651 0.31584859922938513 0.05604717697039785 0 0 255 1.0 1 1 25108
25110 0.029050993264125385 0.08952470342846963 0.17921366693199658 0 0 255 1.0 1 1 25109
25111 -0.4879588983593039 0.5011070443676999 0.6925135255480133 0 0 255 1.0 1 1 25110
25112 0.060263755973575445 0.31426582193430885 0.05480345029928446 0 0 255 1.0 1 1 25111
25113 -0.07612123455213077 0.3081725369843733 0.027399148330754075 0 0 255 1.0 1 1 25112
25114 1.0767245342195686 0.3606644169214275 0.4224069049322179 0 0 255 1.0 1 1 25113
25115 -0.3950363433522604 -0.14279541159236997 0.20760162410175798 0 0 255 1.0 1 1 25114
25116 1.093416495781637 0.34093676589950217 0.3852902708420547 0 0 255 1.0 1 1 25115
25117 0.10161787666317054 0.6697934668242884 0.5871790784632849 0 0 255 1.0 1 1 25116
25118 -0.773715859398487 0.20490771252041462 0.13452423875221498 0 0 255 1.0 1 1 25117
25119 -0.7083889507130143 0.18368349064997203 0.13081262221997036 0 0 255 1.0 1 1 25118
25120 -0.4975381663848268 0.5041367035538484 0.6934424358708478 0 0 255 1.0 1 1 25119
25121 0.38031413117800783 0.6385020402224453 0.5408740965640246 0 0 255 1.0 1 1 25120
25122 -0.23594952070512498 0.312883065738947 0.002408356787711341 0 0 255 1.0 1 1 25121
25123 -0.5390159625336499 0.5060696537951359 0.6830652338149517 0 0 255 1.0 1 1 25122
25124 0.10996656881361656 0.31969802293673055 0.06774580282161047 0 0 255 1.0 1 1 25123
25125 0.9676668479061552 0.17647876606788326 0.17076839970471447 0 0 255 1.0 1 1 25124
25126 0.07551523742986445 0.31746436713779813 0.06175296853393242 0 0 255 1.0 1 1 25125
25127 1.0807132829025212 0.24842071375629704 0.24329011883354523 0 0 255 1.0 1 1 25126
25128 0.8972940984766267 0.16927016227801817 0.18755293201101142 0 0 255 1.0 1 1 25127
25129 1.0632452333244604 0.37727336619595864 0.45263440382442854 0 0 255 1.0 1 1 25128
25130 1.09290225278266 0.34011657069293433 0.3842800797707673 0 0 255 1.0 1 1 25129
25131 0.8936814827543933 0.16815219775143575 0.18699988727747363 0 0 255 1.0 1 1 25130
25132 0.9755113726507465 0.17804804973173827 0.17008813668241163 0 0 255 1.0 1 1 25131
25133 0.9175030906796604 0.17029387595457735 0.18116585358642734 0 0 255 1.0 1 1 25132
25134 0.4219054474272965 0.6316053668013426 0.5278566499648887 0 0 255 1.0 1 1 25133
25135 -0.48369953000806604 0.5002589788653422 0.6927076459317345 0 0 255 1.0 1 1 25134
25136 -0.1874467927411833 0.31179616283251876 0.012366011072324268 0 0 255 1.0 1 1 25135
25137 -0.21525291732426138 0.08516956980073953 0.1322697310201948 0 0 255 1.0 1 1 25136
25138 0.9910064601662245 0.17790254322053567 0.1627938822218007 0 0 255 1.0 1 1 25137
25139 0.30753129002759316 0.6556842451491138 0.5678623499070523 0 0 255 1.0 1 1 25138
25140 1.0795495946050522 0.3671136949655369 0.43068037072861043 0 0 255 1.0 1 1 25139
25141 -0.7871297370138479 0.20656895163606004 0.13004282231815534 0 0 255 1.0 1 1 25140
25142 -0.4830007045674642 0.49928963064989507 0.6917046725336429 0 0 255 1.0 1 1 25141
25143 1.0623979502826697 0.3771479641251303 0.4528160867873281 0 0 255 1.0 1 1 25142
25144 -0.30760191851693863 0.31635449094665624 -0.011564608253781916 0 0 255 1.0 1 1 25143
25145 -0.3811641712288632 -0.13621772536814358 0.22466783058409612 0 0 255 1.0 1 1 25144
25146 0.01598174269984312 0.3125199727374959 0.047632340552156816 0 0 255 1.0 1 1 25145
25147 0.003370737379890465 0.08594744477483918 0.17017028328129524 0 0 255 1.0 1 1 25146
25148 0.8372987276310178 0.38853553376749783 0.5511284974687054 0 0 255 1.0 1 1 25147
25149 0.9766889471849685 0.40020071978450433 0.5200092980434052 0 0 255 1.0 1 1 25148
25150 1.0845156891667085 0.356374079928234 0.41255997035430414 0 0 255 1.0 1 1 25149
25151 1.0558365397734724 0.38559639559573355 0.4678081742014897 0 0 255 1.0 1 1 25150
25152 -0.7254434308627866 0.1602921193542941 0.07801144788520653 0 0 255 1.0 1 1 25151
25153 -0.5847201257728063 0.08327414221639806 -0.0017651811176089272 0 0 255 1.0 1 1 25152
25154 0.12644892153463183 0.322634889257011 0.07374526762797529 0 0 255 1.0 1 1 25153
25155 -0.40917877257317364 -0.14565038009395836 0.19742865031546963 0 0 255 1.0 1 1 25154
25156 -0.5309898753039004 0.5043808497611493 0.68349583525397 0 0 255 1.0 1 1 25155
25157 -0.06548214297957305 0.3098410830161473 0.03219776171589994 0 0 255 1.0 1 1 25156
25158 -0.08417810317496988 0.08306845505906013 0.15358281669659868 0 0 255 1.0 1 1 25157
25159 -0.11827256424625476 0.308012129675042 0.019743815165626177 0 0 255 1.0 1 1 25158
25160 -0.14091171139602265 0.08110288782509789 0.14019862108997838 0 0 255 1.0 1 1 25159
25161 -0.12243413672941972 0.30871721074961345 0.020284255821509056 0 0 255 1.0 1 1 25160
25162 -0.14538413304332642 0.08186063501652008 0.14077943002655968 0 0 255 1.0 1 1 25161
25163 -0.014342319480487836 0.08532247675726579 0.16710001260069118 0 0 255 1.0 1 1 25162
25164 -0.0879892108670065 0.3090917813362535 0.02716750959600467 0 0 255 1.0 1 1 25163
25165 -0.10836633924301953 0.0822631841988084 0.14817682928116227 0 0 255 1.0 1 1 25164
25166 -0.7249283636239781 0.16077369720613 0.07920958766949004 0 0 255 1.0 1 1 25165
25167 0.09360818901718804 0.31745294825839165 0.06282796256107859 0 0 255 1.0 1 1 25166
25168 -0.26497106549330374 0.3171979254774464 0.0026872935221728955 0 0 255 1.0 1 1 25167
25169 -0.298567875083781 0.0909748177651819 0.1218680604823037 0 0 255 1.0 1 1 25168
25170 -0.33216468467425836 -0.13524828994708304 0.2410488274424345 0 0 255 1.0 1 1 25169
25171 -0.5908627994655347 0.08608252702847974 0.0010057305962358765 0 0 255 1.0 1 1 25170
25172 -0.4717058520789315 0.49816993590027225 0.6935822423013251 0 0 255 1.0 1 1 25171
25173 0.16385665807875724 0.327071336470278 0.082653315142867 0 0 255 1.0 1 1 25172
25174 -0.2635527685277509 0.3179623453350553 0.004536208172797318 0 0 255 1.0 1 1 25173
25175 -0.29704363825342317 0.0917963360572771 0.12385508003823387 0 0 255 1.0 1 1 25174
25176 -0.3305345079790955 -0.13436967322050153 0.24317395190367064 0 0 255 1.0 1 1 25175
25177 0.9044335892442597 0.16861322453164496 0.18350478927477698 0 0 255 1.0 1 1 25176
25178 0.11615658307207395 0.32055637593033026 0.06957619506826984 0 0 255 1.0 1 1 25177
25179 0.9847061285071068 0.1754319354171363 0.16121525619737387 0 0 255 1.0 1 1 25178
25180 0.9753422929811897 0.4034263535662208 0.5250021342317954 0 0 255 1.0 1 1 25179
25181 1.0628035341868818 0.38076124819893975 0.4578761358820922 0 0 255 1.0 1 1 25180
25182 0.3249947272529403 0.6536943294806234 0.5643186834857599 0 0 255 1.0 1 1 25181
25183 0.41218740885011446 0.6344520364922945 0.532557008904581 0 0 255 1.0 1 1 25182
25184 1.0328167258061443 0.4008218509755026 0.498989317893755 0 0 255 1.0 1 1 25183
25185 0.3811213082590314 0.6382353682544646 0.5404615767054601 0 0 255 1.0 1 1 25184
25186 0.847298769918482 0.15331487420051726 0.17829561489890056 0 0 255 1.0 1 1 25185
25187 -0.5507561754035701 0.5044345422092862 0.6772529667700999 0 0 255 1.0 1 1 25186
25188 0.20923603536428442 0.3330505705726128 0.09333429794733439 0 0 255 1.0 1 1 25187
25189 1.0230614790771997 0.19182374482921416 0.17281729323714656 0 0 255 1.0 1 1 25188
25190 1.0861262540234247 0.26247753869213497 0.26418062813890364 0 0 255 1.0 1 1 25189
25191 -0.6493866308162572 0.10378100757529518 0.007534623350766934 0 0 255 1.0 1 1 25190
25192 0.8721623993261158 0.1601994138868026 0.18121464154076627 0 0 255 1.0 1 1 25191
25193 -0.873383279957189 0.23470308010758645 0.13025800243875807 0 0 255 1.0 1 1 25192
25194 0.04462324872312037 0.6714060566362616 0.5862376408827672 0 0 255 1.0 1 1 25193
25195 -0.8590721434181026 0.22989373936703839 0.130297255268492 0 0 255 1.0 1 1 25194
25196 0.3721662573161958 0.3543105508764466 0.12073181958817925 0 0 255 1.0 1 1 25195
25197 1.0870034822754824 0.25729674726347085 0.255123488392744 0 0 255 1.0 1 1 25196
25198 1.018471484753182 0.18934308946425826 0.17055608954773538 0 0 255 1.0 1 1 25197
25199 -0.1307009021474544 0.30813200295493015 0.01758441488012008 0 0 255 1.0 1 1 25198
25200 -0.5967052193655924 0.08804482743566933 0.0021633341787938853 0 0 255 1.0 1 1 25199
25201 -0.15050672393314574 0.310039090769866 0.017178350235023787 0 0 255 1.0 1 1 25200
25202 -0.175553605571721 0.08328125302609024 0.1374415284435231 0 0 255 1.0 1 1 25201
25203 0.2108967645526766 0.6634609501783997 0.580818910525567 0 0 255 1.0 1 1 25202
25204 0.2280722586556891 0.6621439099770714 0.5789184990634249 0 0 255 1.0 1 1 25203
25205 0.32713298154996695 0.6507697406886388 0.5605235419209349 0 0 255 1.0 1 1 25204
25206 0.20024150674244912 0.33319169843385943 0.09369268627685479 0 0 255 1.0 1 1 25205
25207 0.8164032910607937 0.14240471835379154 0.16986318610802553 0 0 255 1.0 1 1 25206
25208 0.8354582711853877 0.15220907897158087 0.1806896864235774 0 0 255 1.0 1 1 25207
25209 -0.6000644896680583 0.0864797610030994 -0.002690852096705054 0 0 255 1.0 1 1 25208
25210 0.97998030847865 0.4032199662887672 0.5229781382586813 0 0 255 1.0 1 1 25209
25211 0.9649210306069322 0.17763339631593444 0.1740565579992015 0 0 255 1.0 1 1 25210
25212 -0.2459348151266174 0.3142125456546072 0.0022704650536764515 0 0 255 1.0 1 1 25211
25213 1.093631990102513 0.34269497608987365 0.3878595921669805 0 0 255 1.0 1 1 25212
25214 1.0085391340550194 0.18494749446845216 0.16734726262607214 0 0 255 1.0 1 1 25213
25215 0.3626273703516951 0.6449383915898785 0.5505561077939751 0 0 255 1.0 1 1 25214
25216 -0.5414291798111228 0.07208343446518306 -0.0044044865606815975 0 0 255 1.0 1 1 25215
25217 -0.1692226226481603 0.30851306755812846 0.010278817301538679 0 0 255 1.0 1 1 25216
25218 0.16807724948005123 0.3289543458557205 0.08608876898056605 0 0 255 1.0 1 1 25217
25219 0.08811573971888471 0.3180288409764782 0.06356936414999925 0 0 255 1.0 1 1 25218
25220 -0.5715616842658853 0.07749454257819588 -0.007326739583613184 0 0 255 1.0 1 1 25219
25221 -0.7880503510995429 0.20619176991434962 0.12883552392450337 0 0 255 1.0 1 1 25220
25222 0.8489018470026439 0.15748985317129893 0.1852022128669435 0 0 255 1.0 1 1 25221
25223 -0.24996976470576698 0.3154311577355755 0.0034908359636507402 0 0 255 1.0 1 1 25222
25224 1.0986049382708105 0.3361207642379229 0.37555489732909275 0 0 255 1.0 1 1 25223
25225 1.0447774322023544 0.3875822450522435 0.4752912024288507 0 0 255 1.0 1 1 25224
25226 -0.16060633460944573 0.3087619574306655 0.012628267497133638 0 0 255 1.0 1 1 25225
25227 0.025190542909671043 0.31336955819900325 0.050122990897444986 0 0 255 1.0 1 1 25226
25228 0.013267390044415905 0.08686049012600172 0.17284697305786278 0 0 255 1.0 1 1 25227
25229 -0.19909986134423818 0.31124306793637047 0.008571354218837035 0 0 255 1.0 1 1 25228
25230 0.23326949034820382 0.662970545892914 0.5798298834768112 0 0 255 1.0 1 1 25229
25231 0.15788924207418306 0.327369154445623 0.08310452775067012 0 0 255 1.0 1 1 25230
25232 1.0221924479645228 0.4035106969031479 0.507037451638259 0 0 255 1.0 1 1 25231
25233 -0.7151864465624689 0.18697878572072257 0.13331710478032255 0 0 255 1.0 1 1 25232
25234 0.8484563849359101 0.15256142880107504 0.176503107121613 0 0 255 1.0 1 1 25233
25235 -0.155131201165359 0.3082436720601138 0.0128163858645447 0 0 255 1.0 1 1 25234
25236 -0.5945521231543076 0.08517999807146115 -0.002644230442161888 0 0 255 1.0 1 1 25235
25237 -0.6254979162939949 0.09474149311069757 0.0014592543643037192 0 0 255 1.0 1 1 25236
25238 0.457707970438783 0.613035966084261 0.499515176604856 0 0 255 1.0 1 1 25237
25239 -0.5266062425579954 0.5042925420725952 0.6847594663143337 0 0 255 1.0 1 1 25238
25240 0.06040959493693908 0.3173347345906521 0.060448408276911225 0 0 255 1.0 1 1 25239
25241 0.05111713345786709 0.09112184585178218 0.18394364874768554 0 0 255 1.0 1 1 25240
25242 0.19429808567395052 0.6658695163474522 0.5839233403114232 0 0 255 1.0 1 1 25241
25243 1.07695509118687 0.366214545340267 0.43050212325402426 0 0 255 1.0 1 1 25242
25244 -0.5422712963979932 0.5029010814342754 0.6780663912661009 0 0 255 1.0 1 1 25243
25245 -0.8831141372271145 0.23665014636288717 0.12776720845124379 0 0 255 1.0 1 1 25244
25246 0.842941030301823 0.15304380260576878 0.17943122468865713 0 0 255 1.0 1 1 25245
25247 0.8559720495992793 0.15852142933754276 0.18439680520982882 0 0 255 1.0 1 1 25246
25248 -0.2746498469307288 0.31776382045278373 0.0010026736995669694 0 0 255 1.0 1 1 25247
25249 -0.30896961428101377 0.0915829823347134 0.12005760777660668 0 0 255 1.0 1 1 25248
25250 -0.3432893816312988 -0.13459785578335692 0.2391125418536466 0 0 255 1.0 1 1 25249
25251 -0.8192698688859179 0.5730311944348316 0.6591180871187727 0 0 255 1.0 1 1 25250
25252 -0.11026858658772787 0.30946044963510566 0.02395044314928385 0 0 255 1.0 1 1 25251
25253 -0.13230987565019725 0.08265939022120294 0.14471946366387867 0 0 255 1.0 1 1 25252
25254 0.28670143374234375 0.65784839056851 0.5716349531215255 0 0 255 1.0 1 1 25253
25255 0.06616889581217965 0.3158790049704794 0.05820303459267717 0 0 255 1.0 1 1 25254
25256 -0.7884929350077574 0.20610491400624786 0.12842694512144237 0 0 255 1.0 1 1 25255
25257 0.982384438664774 0.4019559592111128 0.5203133109271116 0 0 255 1.0 1 1 25256
25258 -0.23235868955639533 0.3115490518488828 0.0008138500255416847 0 0 255 1.0 1 1 25257
25259 1.0777487470465899 0.362323412725547 0.4244090788068313 0 0 255 1.0 1 1 25258
25260 -0.20194305324570694 0.31204520868995544 0.009406786320615979 0 0 255 1.0 1 1 25259
25261 -0.23083197777500708 0.08543721816886896 0.1290894666147766 0 0 255 1.0 1 1 25260
25262 1.0529534307245003 0.38594391698572617 0.46952328618330363 0 0 255 1.0 1 1 25261
25263 -0.04937155465211904 0.308552840224785 0.032192070190432576 0 0 255 1.0 1 1 25262
25264 0.44270686072304505 0.6203451328619027 0.5109202116245857 0 0 255 1.0 1 1 25263
25265 1.085450909701643 0.2551914293008406 0.2523589591931654 0 0 255 1.0 1 1 25264
25266 -0.6414344933870952 0.10417909530603886 0.01245866002325724 0 0 255 1.0 1 1 25265
25267 0.8223559303957757 0.15144676765247622 0.18407190345687363 0 0 255 1.0 1 1 25266
25268 0.9807969210983085 0.1770550250613132 0.1659201065571696 0 0 255 1.0 1 1 25267
25269 0.9830635812559962 0.1756290588135534 0.16231943984015285 0 0 255 1.0 1 1 25268
25270 0.1295096461446024 0.669171543328654 0.5873015757158415 0 0 255 1.0 1 1 25269
25271 0.07706432191003365 0.6700651899600878 0.5864371736553935 0 0 255 1.0 1 1 25270
25272 0.11958119264863008 0.6679959704732323 0.5855828429457992 0 0 255 1.0 1 1 25271
25273 1.0594222885974622 0.3840801827493645 0.4641074529337901 0 0 255 1.0 1 1 25272
25274 1.060771808733977 0.38122430489907266 0.4594138489498534 0 0 255 1.0 1 1 25273
25275 0.37985912275133954 0.6382463756463217 0.5405913141057346 0 0 255 1.0 1 1 25274
25276 1.1000996319540355 0.32830044066210773 0.36284676135586214 0 0 255 1.0 1 1 25275
25277 -0.5469614584385332 0.07350669705741675 -0.004010896874297787 0 0 255 1.0 1 1 25276
25278 -0.30818788287938537 0.3154750141556435 -0.013433428281437898 0 0 255 1.0 1 1 25277
25279 -0.38183767295033394 -0.13722858741147226 0.22251982707669904 0 0 255 1.0 1 1 25278
25280 0.30910830490540087 0.6548573095668253 0.566742220853403 0 0 255 1.0 1 1 25279
25281 -0.8796025850048603 0.23513427820288735 0.127203190727335 0 0 255 1.0 1 1 25280
25282 0.017829096911003484 0.313177376133726 0.049036226839340724 0 0 255 1.0 1 1 25281
25283 0.0053560799391405844 0.08665395299792156 0.17167903302590615 0 0 255 1.0 1 1 25282
25284 0.8387015129854247 0.15345603000939834 0.18174151646267833 0 0 255 1.0 1 1 25283
25285 -1.594918942845822 0.5566721996286175 0.6537398354673056 0 0 255 1.0 1 1 25284
25286 -2.44339285975033 0.18954479075093333 0.5843951752538736 0 0 255 1.0 1 1 25285
25287 -1.5535902890990383 0.5384822933504263 0.6453051318561311 0 0 255 1.0 1 1 25286
25288 -1.506409425752741 0.30620813568566785 0.31780645476229075 0 0 255 1.0 1 1 25287
25289 -2.3380816752738918 0.1396429623613593 0.5889131696288896 0 0 255 1.0 1 1 25288
25290 -0.5923355207361316 0.4714973273277496 0.6960012502142872 0 0 255 1.0 1 1 25289
25291 -1.5389251615629413 0.5323138255316837 0.6424595353231741 0 0 255 1.0 1 1 25290
25292 -2.028311874420008 0.0422207817630289 0.6436295908980034 0 0 255 1.0 1 1 25291
25293 -1.4900466315884384 0.2985886752839426 0.3115353990140244 0 0 255 1.0 1 1 25292
25294 -1.6281416393201922 0.5721475833264229 0.6609329261413814 0 0 255 1.0 1 1 25293
25295 -1.1845318957915092 0.4762404442417112 0.6660980003915158 0 0 255 1.0 1 1 25294
25296 -1.5697048544262304 0.5439897108786749 0.6466178476601627 0 0 255 1.0 1 1 25295
25297 -0.6182934393485707 0.47440877540268955 0.7015566746208843 0 0 255 1.0 1 1 25296
25298 -0.8014714481190058 0.13505339982403708 0.16838991405630166 0 0 255 1.0 1 1 25297
25299 -2.3451607608983114 0.14460960165752557 0.5912976875676061 0 0 255 1.0 1 1 25298
25300 -1.8007750038194112 0.19595200720476935 0.5096381182709895 0 0 255 1.0 1 1 25299
25301 -0.7321220021801474 0.1311116058428352 0.16133978619123024 0 0 255 1.0 1 1 25300
25302 -2.3444787183282623 0.14268997225453894 0.5888454330784276 0 0 255 1.0 1 1 25301
25303 -1.4078559322333117 0.26978826449448556 0.2934266626653621 0 0 255 1.0 1 1 25302
25304 -1.409903156500298 0.2710764836257131 0.29491353655747354 0 0 255 1.0 1 1 25303
25305 -0.840244106771112 0.4904591882109317 0.7248621705784497 0 0 255 1.0 1 1 25304
25306 -2.17587762864557 0.08309339459215792 0.6152513075693167 0 0 255 1.0 1 1 25305
25307 -0.9018696477655612 0.1444651483061734 0.18065639756565455 0 0 255 1.0 1 1 25306
25308 -2.18555779921933 0.08510579968050624 0.6119564541478189 0 0 255 1.0 1 1 25307
25309 -0.7613137530733928 0.48496012445506587 0.7193881713589192 0 0 255 1.0 1 1 25308
25310 -1.634265927539832 0.5756326963366729 0.6630094409824296 0 0 255 1.0 1 1 25309
25311 -2.305874060719203 0.37958298960721093 0.4701478275124866 0 0 255 1.0 1 1 25310
25312 -2.4068120820764056 0.18140599381073086 0.6007123306227629 0 0 255 1.0 1 1 25311
25313 -0.5861102950472006 0.4695306063175493 0.6929404079929753 0 0 255 1.0 1 1 25312
25314 -1.8018056173072958 0.19546811920753493 0.5083464207413753 0 0 255 1.0 1 1 25313
25315 -0.9747196677701808 0.16101497832010603 0.20416382316745607 0 0 255 1.0 1 1 25314
25316 -0.6413444610316981 0.47889998369784914 0.7087273727532415 0 0 255 1.0 1 1 25315
25317 -0.7551228643204958 0.4845446590775486 0.718861667226881 0 0 255 1.0 1 1 25316
25318 -2.315131615484961 0.12912277130972338 0.5895997587151969 0 0 255 1.0 1 1 25317
25319 -1.0951580947157606 0.18548871660470878 0.2301789604963307 0 0 255 1.0 1 1 25318
25320 -1.463578885094753 0.2896435828588917 0.306732585240006 0 0 255 1.0 1 1 25319
25321 -1.159095192287229 0.20085183534542939 0.2446869368488418 0 0 255 1.0 1 1 25320
25322 -1.7676038892494073 0.42891902764590695 0.394166087294493 0 0 255 1.0 1 1 25321
25323 -1.8381457753505575 0.22039705748044502 0.5285242859816799 0 0 255 1.0 1 1 25322
25324 -1.9086876614517074 0.01187508731498399 0.6628824846688663 0 0 255 1.0 1 1 25323
25325 -2.314414731284481 0.3833326891042783 0.46921472912093143 0 0 255 1.0 1 1 25324
25326 -2.4159077829569338 0.1853993740443447 0.5997185932110669 0 0 255 1.0 1 1 25325
25327 -1.2436972923697467 0.47609314018192705 0.6534830993258918 0 0 255 1.0 1 1 25326
25328 -1.1989174272407004 0.2087497229474664 0.24943894225309204 0 0 255 1.0 1 1 25327
25329 -1.7416445951950652 0.41167990102227625 0.38074281044529834 0 0 255 1.0 1 1 25328
25330 -1.8103822183052043 0.20195975042481784 0.5141680437911937 0 0 255 1.0 1 1 25329
25331 -1.7487576096310122 0.17270751047653032 0.4987452872050111 0 0 255 1.0 1 1 25330
25332 -0.9630032572777759 0.15883073966659422 0.20151851168349966 0 0 255 1.0 1 1 25331
25333 -1.4431561440513596 0.2823281295268205 0.3020221290267495 0 0 255 1.0 1 1 25332
25334 -0.712716394698262 0.09426885061966539 0.08753117040808833 0 0 255 1.0 1 1 25333
25335 -1.3996237114059245 0.267995152521034 0.29325923313368096 0 0 255 1.0 1 1 25334
25336 -2.3090735657101087 0.37958258251845667 0.4676696304762864 0 0 255 1.0 1 1 25335
25337 -2.4102195124579673 0.18140556026660626 0.5980730836465444 0 0 255 1.0 1 1 25336
25338 -1.6082899748922097 0.35424063276257023 0.3534751555182034 0 0 255 1.0 1 1 25337
25339 -1.667758979002576 0.14052824933571362 0.4850051901528538 0 0 255 1.0 1 1 25338
25340 -1.8136908597783332 0.4368084083251098 0.3816070464279211 0 0 255 1.0 1 1 25339
25341 -1.961181047742101 0.020861147861650498 0.6485776480506289 0 0 255 1.0 1 1 25340
25342 -0.7876251584854796 0.4881241387170032 0.7232534303220886 0 0 255 1.0 1 1 25341
25343 -1.7053540744791529 0.15213264809648575 0.4864792926824604 0 0 255 1.0 1 1 25342
25344 -2.6765952966012163 0.40588206812484184 0.7016998392165579 0 0 255 1.0 1 1 25343
25345 -2.293943030731944 0.12270229093665863 0.5950772298386873 0 0 255 1.0 1 1 25344
25346 -0.9571191226889284 0.15795550563750016 0.20057467574490717 0 0 255 1.0 1 1 25345
25347 -2.6485679596422065 0.467201177189672 0.8051003362637756 0 0 255 1.0 1 1 25346
25348 -2.558874843235057 0.22983133771900377 0.5501066367470113 0 0 255 1.0 1 1 25347
25349 -2.669091912284382 0.034609313095008254 0.6775831211774468 0 0 255 1.0 1 1 25348
25350 -0.5868552568182779 0.4700609146578656 0.693698889701049 0 0 255 1.0 1 1 25349
25351 -2.25688285738784 0.1096845084430913 0.6013037166690973 0 0 255 1.0 1 1 25350
25352 -0.9327727094989862 0.1544854707211578 0.19673283682327036 0 0 255 1.0 1 1 25351
25353 -0.7244522476787925 0.129961732705421 0.15899746306470397 0 0 255 1.0 1 1 25352
25354 -0.5819495253564755 0.47068298196845904 0.6941534915101852 0 0 255 1.0 1 1 25353
25355 -0.956506006050568 0.1591379271453457 0.2028682305164391 0 0 255 1.0 1 1 25354
25356 -0.91716800133936 0.14486926667214162 0.18003269847413117 0 0 255 1.0 1 1 25355
25357 -0.776424219555421 0.134731296562014 0.16830072457919298 0 0 255 1.0 1 1 25356
25358 -2.1412551297026257 0.07391475711761064 0.6235549174143811 0 0 255 1.0 1 1 25357
25359 -2.323058118291354 0.3863617084134803 0.467064787203914 0 0 255 1.0 1 1 25358
25360 -2.425112875485474 0.1886252394359751 0.5974289335832614 0 0 255 1.0 1 1 25359
25361 -2.2698532702747958 0.11229023907297275 0.5961821183594254 0 0 255 1.0 1 1 25360
25362 -0.5961608271271013 0.4698329494469746 0.6940684085631517 0 0 255 1.0 1 1 25361
25363 -0.9494469926808777 0.15756645562937743 0.20072785141967553 0 0 255 1.0 1 1 25362
25364 -0.5838830367351565 0.4643890760736533 0.6859383537967816 0 0 255 1.0 1 1 25363
25365 -0.6398883628350305 0.4808951612750705 0.7112712282141083 0 0 255 1.0 1 1 25364
25366 -1.5322017953284914 0.5323330758385914 0.6448967291759706 0 0 255 1.0 1 1 25365
25367 -0.9412939853925874 0.15756499464229323 0.20162799014833954 0 0 255 1.0 1 1 25366
25368 -2.3430937992832193 0.5182067851974539 0.6395172307063668 0 0 255 1.0 1 1 25367
25369 -2.4464506100165977 0.3290384976024612 0.7810884987456881 0 0 255 1.0 1 1 25368
25370 -1.7710265021309746 0.4298999456777697 0.39388818969127026 0 0 255 1.0 1 1 25369
25371 -1.8418062719643187 0.22144615279395508 0.5282270735095806 0 0 255 1.0 1 1 25370
25372 -1.9125860417976628 0.012992359910140916 0.6625659573278904 0 0 255 1.0 1 1 25371
25373 -1.0339993175990776 0.17214787564178025 0.2163981898613896 0 0 255 1.0 1 1 25372
25374 -1.5596698379658473 0.3312619774736181 0.33728845508814054 0 0 255 1.0 1 1 25373
25375 -1.6157595701479983 0.11595249601958635 0.46769345664325424 0 0 255 1.0 1 1 25374
25376 -0.6261381317987588 0.47675029908580324 0.7050972887931015 0 0 255 1.0 1 1 25375
25377 -0.7275555150216076 0.1312068995460427 0.16146331252153545 0 0 255 1.0 1 1 25376
25378 -0.8800388911800514 0.13990882055315002 0.17368881634102107 0 0 255 1.0 1 1 25377
25379 -1.5291772022173156 0.3160296343838427 0.3249035772825113 0 0 255 1.0 1 1 25378
25380 -1.0065386676333912 0.16748836017326818 0.21192727821915147 0 0 255 1.0 1 1 25379
25381 -2.2289602142514706 0.10085761442142305 0.6070304249000011 0 0 255 1.0 1 1 25380
25382 -2.1804965251500876 0.085533930827149 0.6159840251664777 0 0 255 1.0 1 1 25381
25383 -2.2310450923324145 0.10023662149514134 0.6046306108947903 0 0 255 1.0 1 1 25382
25384 -2.600806884334369 0.44348551941949044 0.8131433965558241 0 0 255 1.0 1 1 25383
25385 -1.575604255965466 0.5462379991209549 0.6473710889847715 0 0 255 1.0 1 1 25384
25386 -0.9473570771340478 0.15720232249953403 0.20027813529100214 0 0 255 1.0 1 1 25385
25387 -0.845278673786148 0.13741825250095197 0.17113436225039202 0 0 255 1.0 1 1 25386
25388 -1.6074972033918788 0.3505327212220606 0.347796593043713 0 0 255 1.0 1 1 25387
25389 -1.6669111070717255 0.13656262479451575 0.47893194744963963 0 0 255 1.0 1 1 25388
25390 -1.4484516062624433 0.524428327754292 0.6626146072976071 0 0 255 1.0 1 1 25389
25391 -2.027231635393133 0.0393989436020461 0.6398767888887769 0 0 255 1.0 1 1 25390
25392 -1.6256995798613514 0.5707046910306453 0.6600289162711681 0 0 255 1.0 1 1 25391
25393 -1.449019712417218 0.2850888694831486 0.30452867949344986 0 0 255 1.0 1 1 25392
25394 -1.5492801760242316 0.5374499661750445 0.6455149028046552 0 0 255 1.0 1 1 25393
25395 -2.1322011902856177 0.07084162057262189 0.6245792377617325 0 0 255 1.0 1 1 25394
25396 -1.9931671975603182 0.030512841939902557 0.6456871672341096 0 0 255 1.0 1 1 25395
25397 -2.2427650397879555 0.45576125782494836 0.6260773430452964 0 0 255 1.0 1 1 25396
25398 -2.339601811774295 0.26253483914076137 0.7667751966344947 0 0 255 1.0 1 1 25397
25399 -1.5758140150698816 0.33734870721268084 0.3403124591924229 0 0 255 1.0 1 1 25398
25400 -1.6330258248096179 0.12246227505966178 0.47092763975620344 0 0 255 1.0 1 1 25399
25401 -2.335604915922297 0.1397803818997203 0.5909685403938136 0 0 255 1.0 1 1 25400
25402 -2.3438139935427325 0.14380728276194032 0.5910668559640888 0 0 255 1.0 1 1 25401
25403 -1.1698924576806762 0.20225738003078142 0.24473728483440715 0 0 255 1.0 1 1 25402
25404 -1.3412738001396984 0.47674008426167935 0.6302054716143737 0 0 255 1.0 1 1 25403
25405 -1.3821842332388972 0.271541847109229 0.7809692445308853 0 0 255 1.0 1 1 25404
25406 -2.4392621818899967 0.188101749922446 0.5854778605381175 0 0 255 1.0 1 1 25405
25407 -2.3696508004100227 0.5052520975373804 0.6023003617072191 0 0 255 1.0 1 1 25406
25408 -2.4747334640017744 0.315241927057317 0.7414530268540227 0 0 255 1.0 1 1 25407
25409 -1.5333179806285555 0.5309919451873553 0.6427175787372545 0 0 255 1.0 1 1 25408
25410 -2.171406045037428 0.08291319132088182 0.6179193469807791 0 0 255 1.0 1 1 25409
25411 -1.5966771221716045 0.5595394262033673 0.6568158011240721 0 0 255 1.0 1 1 25410
25412 -1.5002494167654152 0.30236646429386305 0.3138273321441398 0 0 255 1.0 1 1 25411
25413 -1.3479561353239435 0.25186360418524023 0.28284252838594437 0 0 255 1.0 1 1 25412
25414 -0.7419019484562556 0.4839449848805919 0.7180550607995928 0 0 255 1.0 1 1 25413
25415 -0.8548272403885254 0.1385079441315531 0.172687025025837 0 0 255 1.0 1 1 25414
25416 -0.873634037293246 0.14013958654344538 0.17459612805299352 0 0 255 1.0 1 1 25415
25417 -1.1861288600586102 0.20570898926357817 0.24710479339431934 0 0 255 1.0 1 1 25416
25418 -2.125442175021387 0.0691118185378925 0.6261921508152459 0 0 255 1.0 1 1 25417
25419 -1.7921133744503617 0.18998102100598224 0.5046128957151017 0 0 255 1.0 1 1 25418
25420 -0.9081071588095465 0.14547544136191792 0.18203278844098025 0 0 255 1.0 1 1 25419
25421 -1.574096672676082 0.544526822094952 0.6456803759752929 0 0 255 1.0 1 1 25420
25422 -0.6161261879400651 0.47560912349765516 0.703007821128365 0 0 255 1.0 1 1 25421
25423 -0.596798235666187 0.46781709457999776 0.6914390705731492 0 0 255 1.0 1 1 25422
25424 -0.9144436523564838 0.14589666556227954 0.1822524219673627 0 0 255 1.0 1 1 25423
25425 -1.6673650590160705 0.3759402334933917 0.3609620109438729 0 0 255 1.0 1 1 25424
25426 -1.7309399909591587 0.16373604926626628 0.4930124085797398 0 0 255 1.0 1 1 25425
25427 -1.7891934923671526 0.43370188583267133 0.39012315205887016 0 0 255 1.0 1 1 25426
25428 -1.8612359324438623 0.22551234127167996 0.5242003524105312 0 0 255 1.0 1 1 25427
25429 -1.933278372520572 0.017322796710689037 0.6582775527621922 0 0 255 1.0 1 1 25428
25430 -2.6124083313270003 0.45189596393801246 0.8146591781287966 0 0 255 1.0 1 1 25429
25431 -1.5189112188501661 0.5286977144871181 0.644775308204671 0 0 255 1.0 1 1 25430
25432 -1.6314408954195914 0.5738146426684159 0.6617816379197896 0 0 255 1.0 1 1 25431
25433 -2.0062659524339104 0.03425823760174085 0.6440327823342813 0 0 255 1.0 1 1 25432
25434 -1.1850451008102618 0.20706328253257356 0.24980908404508284 0 0 255 1.0 1 1 25433
25435 -1.4734818499008404 0.292375471703751 0.3075362719636623 0 0 255 1.0 1 1 25434
25436 -1.3620194378754733 0.25636592421874926 0.2860366207422316 0 0 255 1.0 1 1 25435
25437 -1.5355169650107952 0.5312423214372513 0.6422621536510602 0 0 255 1.0 1 1 25436
25438 -1.4266426070205795 0.2758993032555481 0.29713533876473996 0 0 255 1.0 1 1 25437
25439 -0.6316826893521105 0.47799241690503624 0.7070360451982214 0 0 255 1.0 1 1 25438
25440 -0.9275656627373016 0.1549284789744032 0.19810055182006137 0 0 255 1.0 1 1 25439
25441 -1.6416799045882517 0.3648809804889259 0.355341712654468 0 0 255 1.0 1 1 25440
25442 -1.7034696272164989 0.15190813896078037 0.48700147962908535 0 0 255 1.0 1 1 25441
25443 -0.7253401768810469 0.12958762400357537 0.15828489714251126 0 0 255 1.0 1 1 25442
25444 -0.8015668792272417 0.13446148630163757 0.16724469570203793 0 0 255 1.0 1 1 25443
25445 -1.6360255164282422 0.575819505506336 0.6625462717616719 0 0 255 1.0 1 1 25444
25446 -2.6525242053829103 0.4709139967528393 0.8065851394365009 0 0 255 1.0 1 1 25445
25447 -1.0905234335828347 0.18433674260769628 0.22895725913104714 0 0 255 1.0 1 1 25446
25448 -1.520483145382951 0.3111188687884443 0.3202911287802983 0 0 255 1.0 1 1 25447
25449 -1.441205970445901 0.28036085011114054 0.2993869544516139 0 0 255 1.0 1 1 25448
25450 -0.8432471581642458 0.136917772635472 0.17027953820766895 0 0 255 1.0 1 1 25449
25451 -1.544712430366038 0.32320984000262243 0.33033740523627264 0 0 255 1.0 1 1 25450
25452 -1.5997625696795499 0.10734070644067728 0.4602592841775688 0 0 255 1.0 1 1 25451
25453 -2.266393491878814 0.35383506980108104 0.46101475688817484 0 0 255 1.0 1 1 25452
25454 -1.404148870652541 0.5193688080043404 0.6694785524152256 0 0 255 1.0 1 1 25453
25455 -0.8053170640257246 0.1346115697660757 0.1674228797251749 0 0 255 1.0 1 1 25454
25456 -2.31036069337822 0.38010817287449505 0.4674695443364063 0 0 255 1.0 1 1 25455
25457 -2.4115902863538468 0.18196530702509284 0.5978599945612342 0 0 255 1.0 1 1 25456
25458 -0.9729553633063222 0.16128075313228374 0.20488580288610225 0 0 255 1.0 1 1 25457
25459 -1.4230991568630524 0.2756536199144062 0.2980104805575121 0 0 255 1.0 1 1 25458
25460 -0.7393367792499149 0.48456192060494363 0.7188461807632829 0 0 255 1.0 1 1 25459
25461 -0.9019955173932682 0.14366711538926724 0.17912027629741156 0 0 255 1.0 1 1 25460
25462 -2.3365715238948614 0.13988095053514904 0.5904051784887983 0 0 255 1.0 1 1 25461
25463 -1.0096202986526968 0.1671477427175989 0.21084285043638062 0 0 255 1.0 1 1 25462
25464 -0.7282009745199997 0.4841317915881711 0.7181918921756514 0 0 255 1.0 1 1 25463
25465 -1.502162262049107 0.30460335551029605 0.3168256911903593 0 0 255 1.0 1 1 25464
25466 -0.6105467795563844 0.47132429224734684 0.6970042640553766 0 0 255 1.0 1 1 25465
25467 -0.6418099551708676 0.47840572553563643 0.7081014995161781 0 0 255 1.0 1 1 25466
25468 -1.205389104523614 0.4782193076687564 0.6645629178496704 0 0 255 1.0 1 1 25467
25469 -2.2247219173210477 0.0993258075835568 0.6075656051353062 0 0 255 1.0 1 1 25468
25470 -1.4986085332080838 0.30133009256020493 0.3127391178445986 0 0 255 1.0 1 1 25469
25471 -0.9159411616963085 0.15269104665928168 0.1950105957834014 0 0 255 1.0 1 1 25470
25472 -0.9060455365178004 0.1423182201385491 0.17618098187879916 0 0 255 1.0 1 1 25471
25473 -1.1188438661385323 0.20269777097892394 0.25670424898194333 0 0 255 1.0 1 1 25472
25474 -1.1442946300660186 -0.021547378727930777 0.3815083624530804 0 0 255 1.0 1 1 25473
25475 -0.675187130955082 0.48302173641076607 0.715544594816085 0 0 255 1.0 1 1 25474
25476 -2.4534066467556688 0.18738242655735737 0.5730676141196611 0 0 255 1.0 1 1 25475
25477 -2.204869383194085 0.09248515429903348 0.6104641220082174 0 0 255 1.0 1 1 25476
25478 -1.0055598266381929 0.168228403946443 0.21344670066448224 0 0 255 1.0 1 1 25477
25479 -0.6466945902898317 0.4090543006422611 0.13104349275898253 0 0 255 1.0 1 1 25478
25480 -0.6387791543939347 0.18347295827971744 0.25578361919530335 0 0 255 1.0 1 1 25479
25481 -0.6308637184980378 -0.04210838408282713 0.3805237456316244 0 0 255 1.0 1 1 25480
25482 -1.7427841321912665 0.4100758114894698 0.377630879971526 0 0 255 1.0 1 1 25481
25483 -1.811600957163553 0.20024417098122038 0.5108398231142794 0 0 255 1.0 1 1 25482
25484 -0.7123782871526738 0.09146066620683024 0.08175244204535659 0 0 255 1.0 1 1 25483
25485 -2.1732627946586467 0.4773118200465838 0.7009904068432478 0 0 255 1.0 1 1 25484
25486 -2.2655828424920204 0.28548590209032776 0.846556616037353 0 0 255 1.0 1 1 25485
25487 -1.6033699535247106 0.3481268800409416 0.34573381577578743 0 0 255 1.0 1 1 25486
25488 -1.6624969987031513 0.13398956911995752 0.4767257998467802 0 0 255 1.0 1 1 25487
25489 -1.7641820918529567 0.42503388536803843 0.38992135129624894 0 0 255 1.0 1 1 25488
25490 -1.8344861509010202 0.2162418840371645 0.5239845257793025 0 0 255 1.0 1 1 25489
25491 -1.01574335298405 0.1695777813859758 0.21445759392838015 0 0 255 1.0 1 1 25490
25492 -1.4347143567087932 0.2788416765601589 0.29920420746908105 0 0 255 1.0 1 1 25491
25493 -1.8215360364503312 0.4379455148667235 0.3790264601381095 0 0 255 1.0 1 1 25492
25494 -1.9701167596110578 0.022156320277134434 0.6456383419645031 0 0 255 1.0 1 1 25493
25495 -1.4405146785613443 0.2820240671862755 0.3024911513840409 0 0 255 1.0 1 1 25494
25496 -2.135497375032484 0.07223389766307697 0.6246356226828327 0 0 255 1.0 1 1 25495
25497 -0.9755078084841278 0.16149165486125083 0.2049566940805161 0 0 255 1.0 1 1 25496
25498 -0.9502013690228517 0.15823901025166842 0.20190658878305534 0 0 255 1.0 1 1 25497
25499 -1.9085308654219957 0.23414172444587278 0.5115884798108181 0 0 255 1.0 1 1 25498
25500 -1.983646848888531 0.026512975343151446 0.6448460757097123 0 0 255 1.0 1 1 25499
25501 -1.3184059480618298 0.49804310038377775 0.664902754868766 0 0 255 1.0 1 1 25500
25502 -1.5194839880431925 0.311814720853834 0.3218696387974753 0 0 255 1.0 1 1 25501
25503 -1.4305569929410566 0.2766702893552586 0.29701817865396274 0 0 255 1.0 1 1 25502
25504 -1.7496501975651406 0.4148847714503243 0.38163640385241293 0 0 255 1.0 1 1 25503
25505 -1.8189442384286607 0.20538737071240343 0.5151237451088735 0 0 255 1.0 1 1 25504
25506 -1.0555251166865942 0.17638902303490145 0.22067504830798024 0 0 255 1.0 1 1 25505
25507 -0.9876027995006796 0.16416171083632802 0.20836676717170932 0 0 255 1.0 1 1 25506
25508 -1.5776809031736423 0.33685896829758777 0.3386873224323259 0 0 255 1.0 1 1 25507
25509 -1.6350224682567605 0.12193849755330666 0.46918955022838316 0 0 255 1.0 1 1 25508
25510 -1.8150315876820902 0.47925026192689435 0.44546096003960156 0 0 255 1.0 1 1 25509
25511 -1.8888698670076396 0.2742264910235157 0.583384334279285 0 0 255 1.0 1 1 25510
25512 -1.9627081463331888 0.06920272012013706 0.7213077085189685 0 0 255 1.0 1 1 25511
25513 -1.521253819352588 0.3119762551486498 0.32141001238609745 0 0 255 1.0 1 1 25512
25514 -0.5886084959132354 0.4688408086145204 0.6922105186326981 0 0 255 1.0 1 1 25513
25515 -2.0146766970630656 0.038793560151943574 0.6462338209423188 0 0 255 1.0 1 1 25514
25516 -1.483221783080774 0.29623341467917985 0.31025600933171527 0 0 255 1.0 1 1 25515
25517 -0.7665960260613649 0.1336203079093483 0.16626384382839765 0 0 255 1.0 1 1 25516
25518 -2.004612087767924 0.03512786091756315 0.6463329019348361 0 0 255 1.0 1 1 25517
25519 -1.5741467225473973 0.33649191276807944 0.33963211805555726 0 0 255 1.0 1 1 25518
25520 -1.631242649544436 0.12154593036288253 0.4702000124977681 0 0 255 1.0 1 1 25519
25521 -1.468731830455022 0.2911613157144508 0.3073214873194974 0 0 255 1.0 1 1 25520
25522 -2.134148743610462 0.07122529686893264 0.6239319501549911 0 0 255 1.0 1 1 25521
25523 -0.5984580681762869 0.4709240121559515 0.6956732930156677 0 0 255 1.0 1 1 25522
25524 -1.4407070338891925 0.28071110180882686 0.30017347559498786 0 0 255 1.0 1 1 25523
25525 -2.2682502766194057 0.3566462483184156 0.46392705465403616 0 0 255 1.0 1 1 25524
25526 -2.0173358246527306 0.03796367239923937 0.6434069214719524 0 0 255 1.0 1 1 25525
25527 -0.8013439939388098 0.4888927605238238 0.7239988058082385 0 0 255 1.0 1 1 25526
25528 -0.6748101338015033 0.4827448801134939 0.7151697769079839 0 0 255 1.0 1 1 25527
25529 -1.5416745083241734 0.32252091297055596 0.3304773512767889 0 0 255 1.0 1 1 25528
25530 -1.5965135012830025 0.10660389653687874 0.4604089569641636 0 0 255 1.0 1 1 25529
25531 -1.3109172037475538 0.24615820500403718 0.2846088628695973 0 0 255 1.0 1 1 25530
25532 -0.8443499974646633 0.49133438243529604 0.7258353038777654 0 0 255 1.0 1 1 25531
25533 -0.7908756883226676 0.48888726449610376 0.7241926332126403 0 0 255 1.0 1 1 25532
25534 -2.1443557042292163 0.07331804064596925 0.6206338730473384 0 0 255 1.0 1 1 25533
25535 -0.6310987683063782 0.47950901790647293 0.7089958735071769 0 0 255 1.0 1 1 25534
25536 -0.8531176339463264 0.13861841550109366 0.1730005591862409 0 0 255 1.0 1 1 25535
25537 -2.5611428385727093 0.4199984369960723 0.814044299940724 0 0 255 1.0 1 1 25536
25538 -1.4605996409936215 0.288578473830829 0.3060655764066129 0 0 255 1.0 1 1 25537
25539 -0.6007854912077519 0.4717633197484581 0.6969432364544097 0 0 255 1.0 1 1 25538
25540 -1.650841530370696 0.36956383669488435 0.3585863033272796 0 0 255 1.0 1 1 25539
25541 -1.7132680184788578 0.1569164702789263 0.4904715808592981 0 0 255 1.0 1 1 25540
25542 -1.736243424886464 0.4089749379929306 0.379263586808408 0 0 255 1.0 1 1 25541
25543 -1.804605647507069 0.1990667828728654 0.5125860088660652 0 0 255 1.0 1 1 25542
25544 -1.391084056935897 0.2652682828619981 0.29154724761468787 0 0 255 1.0 1 1 25543
25545 -1.1603905216477728 0.2010189648088625 0.2446937868309591 0 0 255 1.0 1 1 25544
25546 -2.2927826401087836 0.4228901571573309 0.5441307560786053 0 0 255 1.0 1 1 25545
25547 -2.392869892752577 0.22752755288599102 0.6795031683397299 0 0 255 1.0 1 1 25546
25548 -0.8604894271869222 0.4744160252009313 0.7030005749584578 0 0 255 1.0 1 1 25547
25549 -1.6553632622654542 0.3693037017618175 0.3560194154834708 0 0 255 1.0 1 1 25548
25550 -1.7181040267748116 0.15663825504554696 0.4877262852079054 0 0 255 1.0 1 1 25549
25551 -0.7617821203617273 0.13505654966385583 0.1690691229644241 0 0 255 1.0 1 1 25550
25552 -1.7467240275107527 0.41647239042645134 0.3856399746444341 0 0 255 1.0 1 1 25551
25553 -1.8158146891790035 0.20708533483722613 0.5194055782679998 0 0 255 1.0 1 1 25552
25554 -1.8123053700162797 0.4371215874147101 0.38285947973144996 0 0 255 1.0 1 1 25553
25555 -1.9596029650769535 0.021217861065833343 0.6500041784658539 0 0 255 1.0 1 1 25554
25556 -0.8231341158856937 0.13616689226704493 0.16978059756430364 0 0 255 1.0 1 1 25555
25557 -1.7548574504870098 0.1735584603338487 0.49711339412977007 0 0 255 1.0 1 1 25556
25558 -0.6299146981551584 0.47920540906730036 0.7085330890138242 0 0 255 1.0 1 1 25557
25559 -1.3024249035206013 0.4921862041553502 0.6611468024253753 0 0 255 1.0 1 1 25558
25560 -0.8917677367882483 0.14101405658383293 0.17489819989699162 0 0 255 1.0 1 1 25559
25561 -1.4453947138568488 0.2823274555721089 0.301179803634245 0 0 255 1.0 1 1 25560
25562 -0.7669147555279265 0.13422411203440854 0.16742760784919453 0 0 255 1.0 1 1 25561
25563 -2.638658426665684 0.4625491991517743 0.8072106890132156 0 0 255 1.0 1 1 25562
25564 -0.7533740165969731 0.13560324898162923 0.17014723039978907 0 0 255 1.0 1 1 25563
25565 -2.2659225749943888 0.3539076356529476 0.4614826536272354 0 0 255 1.0 1 1 25564
25566 -1.5582829417035993 0.5372021562896077 0.6418822123652681 0 0 255 1.0 1 1 25565
25567 -1.075972056979098 0.18526446875278468 0.23337519512247296 0 0 255 1.0 1 1 25566
25568 -0.8902200769946877 0.14272768903718935 0.17830653050651035 0 0 255 1.0 1 1 25567
